x,y,z
-2.2557280873856111,6.6929116388015908,-4.2567585193337001
-2.4414850414738192,6.5515358514837763,-4.2037704182192961
1.5889273486288296,4.9934863007460395,-0.64929021235387674
1.5297741090010692,5.004333423737223,-0.78604493164979949
1.2957057705271597,5.0918829629174001,-0.80383193296613586
1.1935248277864028,5.0934234846260047,-0.62813321596089877
1.4793923454680888,5.0121399339940229,-0.45468905271527987
1.3059841370938094,5.0397709707523042,-0.44513222383227197
1.123097957940268,5.455598090849203,0.46613745842770882
1.346833366431176,5.1434239179993817,0.31140151750505718
2.902499692221352,5.8330778202711748,-1.1013707798016394
2.8147325858434962,5.6750494468722019,-1.1024017516912126
2.8165970387273087,5.5413299540253655,-1.287367695395937
2.9067760495367265,5.6116341724014278,-1.449088730741418
1.7691955920315763,7.1445836962639211,-1.7982890043847037
1.9286067928036275,7.1257850480060396,-1.6891137681030279
1.7384569971401722,7.1390081078957612,-1.7919921743725191
1.9127403339139695,7.1105944945782635,-1.5179572490898889
1.7396508813539149,7.1112305133597244,-1.4387244417654872
1.616179673778442,7.1046787519620347,-1.5533783636990679
3.1259816670169953,5.8389115776544713,-3.1826167713217739
3.1474805110301123,5.7680172604800966,-2.9257741099241192
3.0320476530133407,5.7173546104189832,-3.2863836764360252
-1.2260760214174338,5.3672309706583761,-2.9736677126340605
-1.2391677446043681,5.3667303118515672,-2.6413198994315441
-1.3123438154945124,5.261580647555828,-3.0468567429117042
-1.5115140188722855,5.2028623917061534,-2.9892216051582183
-1.4824983913699523,5.3432883021164503,-2.6317345392234075
-1.5935098275981445,5.2160136467904792,-2.7954336980016112
1.7090734355265875,5.0753814917789182,-2.3992200515259432
1.8188895040958091,5.0279575800018614,-2.2208418054807058
2.0098625420994196,4.8569850749243884,-2.2800147038870642
2.0104378311155822,4.8087883298620424,-2.4694804698760326
-1.934626030394464,5.6808008819967428,-4.4941564931801912
-2.051095941485249,5.5897409329225036,-4.3116217479980907
-2.2903236025882574,5.7180966604223826,-4.2583274329949488
-2.1908794107578937,5.9465258906163889,-4.2946155679848923
0.2630166222781502,5.1068288938158339,-0.8059570321880285
0.31330793397638163,5.2101466446852109,-0.93213438291756889
-0.02959250532001776,5.1687403273099717,-0.88337758183686677
0.015106527472764825,5.1188551685440737,-0.81420042981813279
0.20849136310680089,5.2877069708201798,-1.0368005054807146
-0.42928875728857596,6.0567774376175345,-1.1308595882917474
-0.60017139755830817,6.0519889405937786,-1.2616215606495584
-0.35369847320598213,5.8284566756928085,-1.0488942890210584
-0.48428579086652923,5.6978028488628318,-1.0419426375745167
-1.0872323470440359,6.6202250364413855,-5.1022072395974813
-1.2292782523119525,6.6988983956972659,-5.0591209393453562
-1.0796057950675235,6.399951101254203,-5.0926741946438572
-1.2598584490706757,6.3052786041239166,-5.0564045543676928
-1.4189494415705663,6.5838860578859171,-5.0181230565269397
-1.4014733430996813,6.3980014455196086,-5.0140679574568612
-0.16396049486218967,5.8092713553934825,-1.0090723680476863
-0.075118663788241849,5.5922677516797998,-0.95616090934258613
-0.2211674077367245,5.437535488044329,-0.928484567735128
-0.42183737687524125,5.4719762291759171,-0.95981775490438337
0.24216447594353938,6.4593519326806588,-5.2530858379571814
0.25225234596467255,6.2287423134120132,-5.251099604663322
0.91801893567097526,6.6265247254371396,0.72634713325508193
1.2391486876789495,6.5693534736915469,0.6284772413421823
1.0496666312524483,6.6758488237199591,0.65726566562338207
-0.68264037070681294,7.0316657282723796,-3.6553015301783232
-0.71513985345695008,6.9888537965843929,-3.7810212729487183
-0.30682570309935919,6.9578055137030503,-3.895681634614621
-0.56763189359412758,6.9628566264023286,-3.9842994153980849
-0.27877743137153316,6.9695063482009054,-3.7178910096118458
-0.45203440645258119,6.8898137974657319,-3.6058993069160148
2.0395681429352348,6.6084828924672339,0.079662076138171209
1.5327710006910622,6.3729297485755732,0.43756977682315801
1.7449612289018812,6.2362574285425181,0.32259136775656166
1.7706229054794307,6.1233887709616273,0.32846192831389392
1.5367789718260034,5.9827743064187473,0.32794609652318696
2.4108667902673901,6.9801994754316237,-1.9777441975464845
2.4005442893578883,6.9383542287786604,-1.8313121765531395
2.5148915182515923,6.9075110827838913,-2.1209343237043812
2.6986332561733928,6.7367913445196423,-2.0626895277211865
2.6256896463306671,6.8159657968158598,-1.6991521836967307
2.7076946640676405,6.701499964864488,-1.8202532690447288
1.3756266505752062,7.0575383735098187,-4.3710483383597438
0.96221272256142221,6.9919856699031264,-4.3507457347091041
1.0905322290652599,7.0038269453529551,-4.1713345952215874
1.2457454788605362,7.0013649063473657,-4.1809443336145664
1.5591539101439287,6.7522888786142232,-2.5404044376096397
1.4636166022733488,6.7416086381785165,-2.6408029182812873
1.5406819544713588,6.6954781635192422,-2.3014810048220125
1.4203491077804844,6.6072829889133562,-2.2299670479467713
1.2903846328071811,6.4642696646880529,-2.3252907619037724
1.236950622794917,6.458765791324323,-2.5064685674145184
1.300967214835536,6.5554476386093361,-2.6583120296033669
-0.80765404778771399,5.5533230138481429,-2.888324564745314
-0.88038768165035464,5.5020691490845364,-2.88342910492111
-0.91209372658237409,5.7204562581787419,-2.8070619731772597
-1.0643778066395766,5.5917650577206217,-2.7126467878762797
2.5818387461798031,6.6257742043130357,-0.80617824288488171
2.6568438106760142,6.5852871940478579,-0.83068290626643282
2.474074316805051,6.5938136927142921,-0.56402814169367865
2.5849439123078053,6.5235760953597381,-0.44542904572280489
2.69655193250007,6.4297591282462552,-0.4893730976164693
2.7725261065058264,6.4319921406569556,-0.71883052638642997
-1.6358713712774544,7.063942865487097,-2.8828607045038552
-1.658149790589758,7.0641603894985847,-2.7103104471254311
-1.7721436197032876,7.1026464974419152,-2.6667405271511582
-1.8455299949546331,7.1175583033257395,-2.7197259850145494
-3.1129596290615873,5.8238164497096463,-2.0647112062807618
-3.0529386409182759,5.6077200753525682,-1.9314879955708828
-3.0814820491826831,5.7838627838957892,-2.3202668575149246
-0.84463637780808476,6.9359275245417829,-4.1789559660153177
-0.88447088571399357,6.9504462736978478,-4.3630158619742492
-0.99381868510803462,6.9888903279652199,-4.0188548654731333
-1.0853426966244377,6.8938689602748608,-4.4192624195383514
3.2187329336956494,5.7883253376931423,-2.8573270539456108
3.1796138529863271,5.8125731899383295,-2.6861209238247095
3.0125943161098174,5.6736540341537056,-2.5691540029360453
2.9362501568460568,5.5331525430682165,-2.6399183116541707
0.25026117071944481,6.8147759508919679,-5.1345179491555282
2.7900471198353558,5.3922479422967715,-2.3477084318988224
2.6727672650131211,5.2782430737010069,-2.1915370440330069
2.5733259691126076,5.0980284133036937,-2.2420926567538113
2.8002370682666569,5.3744756598086543,-2.4770337570905143
2.5425233910229701,5.0497999785876511,-2.4394543363830374
2.6505405992279081,5.2708445918950106,-2.5918310958555661
0.16242841679002518,5.2463584275526367,-3.5359452784515546
-0.07612516477991968,5.2129834823626471,-3.5107263996284477
0.25207574676372679,5.1598700596300615,-3.5880380112989632
-0.1144287424900681,5.1534467478913362,-3.5856197069773597
3.0569900403001555,6.2885818102621789,-1.2563900068911935
3.0727908395046333,6.1645438181810928,-1.2158635945346905
-0.00079245325407913906,5.0868418327379779,-4.5116438435894857
0.21222628341619371,5.0524770745645,-4.3859031252554717
-0.19972897108038179,5.0882209708755468,-4.2720799275360308
-0.13204257462825639,5.0910989081817979,-4.4559948966150369
0.15885206296773796,6.8165160346539766,-0.8608713227408441
0.22054259523042172,6.7514874000018033,-1.016597448055758
0.21486081450563968,6.738449282613959,-1.0371586633636585
-0.13366029406576174,6.8222497981497066,-0.85523729555668693
-0.18974012888288472,6.7647294619268115,-0.9523335716362884
-0.098578450152560781,6.6472215114591187,-1.0218090608158217
0.61157674718828181,6.7070381873491272,-3.3572477557377476
0.44466373815328586,6.7320811140158821,-3.4220495831626376
0.37929933888424666,6.8383903009762577,-3.5258551294606053
0.68995250613141912,6.850465796402438,-3.7486613667560813
0.82216237096658795,6.8141640358094824,-3.5940603926057673
0.4848340609984842,6.8605528618544929,-3.7302453268535354
0.80501133134465075,6.7535162867090079,-3.4819058638227118
-0.41427679301936948,5.8678705595505969,-5.235393217010671
-0.44142670110820859,5.6424698658514707,-5.2272152317955092
-0.26572728255161687,5.9431022672357257,-5.2855424961656876
-0.085282894541391027,5.825643380502286,-5.2828892902094653
-0.090746113649543755,5.6323286891347975,-5.2784555218330604
-0.25289756010368381,5.537837462168623,-5.2391759501211954
1.4989593561387475,7.0517533293963339,-0.93782690142814495
1.6907812835487483,7.0938892765307058,-1.2736022624955126
-0.93161075735939403,6.0627219215099268,-5.1109899357739321
-0.77289629048494624,5.9195065134463931,-5.1820615408468544
-2.1547382713761585,5.0068975796902935,-1.1765546134684093
-2.2553631946663355,5.1354865704672168,-1.127644650741368
-2.434133381656181,5.2048019336047631,-1.2347429994130508
-2.4498114839608647,5.1241909136616268,-1.44763701244001
2.9035518244934924,5.559423029456898,-2.2009068838505566
2.8390898868430146,5.4969101478843045,-1.9965396506564512
2.741593530415444,5.3123798728710288,-1.9864302444587454
-0.1053836325149983,6.9408632919767106,0.52014949381044029
-0.22078201266744962,6.9324635539810187,0.57073474366594157
-0.45669170741341997,6.9975472833655266,0.43962378925072743
-3.1460778749834253,6.1850946430789548,-2.9891107318265036
-3.0841607051957514,6.172690960018393,-3.309541812375528
-3.0767987806851087,6.2251939852396196,-3.2395777483472799
0.79376239108358104,6.2365325096169659,-1.2500114501225212
0.58718014521557094,6.2136824890442934,-1.0986187560858418
0.47840194859154606,6.0948403117484409,-1.1113197251535192
0.55954283212595368,5.8650390699705799,-1.1787807503918264
0.71555931871542355,5.8494892350879324,-1.3111449684059697
0.84073122419421065,6.0197338395867135,-1.3712193864447877
-0.29039655105906942,5.1639842699396326,0.55760335382760107
-0.12337620805385716,5.147153580274467,0.3748855548201796
-0.48892592219028708,5.1866004502149243,0.41080357090426139
1.0314144802433147,6.2985511085757597,-2.5725725328666873
1.0024538544780743,6.1728225921791413,-2.4702954915583506
0.9384801750331071,6.342019711206949,-2.7339330527341592
0.87170492092801077,6.2242903910449439,-2.7986402827080274
0.87047178188274199,6.0832614940733363,-2.7412789932416
0.93344987805617641,6.0411372695418644,-2.5587981639782376
-0.64171738306362958,6.6603601360371174,-5.2480541249479744
-0.7241847172686724,6.6248897683602141,-5.2064854569641943
-0.79699478088391418,6.3275255212768569,-5.1618373471529972
-0.57350863634959004,6.2059526279705324,-5.211744427267412
2.7126900287113651,6.3465388633003288,-0.45691029464805361
2.5831860977868359,6.2950874833330683,-0.32922698674851802
2.2983250811812854,7.0756954563324888,-3.0128637740273332
2.417499388263209,6.9709261444415613,-3.0162611564775661
2.5046821942474957,6.8990486413483447,-2.8450550749877079
-0.64622025419671325,5.0869912782439917,-5.0091971544630205
-0.77446703412996454,5.0029313123218033,-4.8676981836724869
-0.94219053807724906,5.0853204080587657,-4.9017898455627575
-2.037241013750545,5.4062184181685211,-4.2892076794394534
-2.2897849337450071,5.7187200453942317,-4.1776040596835617
-2.1541604483885863,5.2971392546875071,-4.1243237854986701
2.0141513865054081,6.2291719205936324,-4.4798237587549563
2.169760900283995,5.8710147884030777,-4.5419001279211972
1.985392580284741,5.9418482846280156,-4.6445845714038718
1.9305969345953262,6.1120426313625931,-4.6251701319092104
2.5644201304496681,5.2755351141520697,-3.1935862183312858
2.6527875888584527,5.2435187162695893,-2.7753066444796017
2.4699240240868749,5.1588927520456167,-2.8520958110545953
2.4411627111474004,5.1663835748207125,-3.093089706727989
-1.0026537379757723,7.019272375655607,-3.4844016998941885
-0.74576436678211533,6.9584516815097714,-3.5683991865577958
-0.97042953080047112,6.9848224296300447,-3.8880022314290925
-1.1184186597624921,6.9889842645418767,-3.7130157393685259
-1.0620122453859913,7.0667649615717751,-3.5170903001105742
2.4143969231670059,6.7049709951443193,-0.92612893257771156
1.6511837218265009,6.8990936465639354,-0.59080648706392036
1.7339318373414103,6.8569854653590614,-0.43224489204367056
1.8450659806113987,6.9536957564535289,-2.7415595022682133
2.0024758732907761,7.187099432374576,-3.1089745693414144
0.7295183903556921,5.8120165490301066,0.67395705262947359
0.52936092611162167,5.7423167512828588,0.74635251351881693
0.37596484274243835,6.9025700947362623,-0.27980369679080813
0.4523798517030026,6.9694810732755741,-0.47262446722812046
0.16394634550421841,6.8623642331908083,-0.24406157112614085
0.22949416594039054,6.8741557859593936,-0.6440483503666663
-1.0893694117670329,5.1895645464840854,0.076677754962068842
-1.2773357853096095,5.1248668439264717,-0.095911252792603374
-0.17361714255838867,6.784693929417676,-3.5319154290780199
-0.11053473797401493,6.7172532957649986,-3.4791422263573457
-0.47461772094282778,6.8219396703371684,-3.4424082136318415
-0.45036689975015654,6.8325819679421995,-3.4786077203519996
-0.18516724111420368,6.4830376057726609,-3.5026832258026745
-0.39879165397656857,6.4374956192970432,-3.4747564674981248
-0.52172580644569766,6.5307201590404809,-3.4261448974393791
1.4101166002159662,5.0024337064880351,-3.8333766843092114
1.4926476998634024,4.9456607766844884,-3.6661900819963349
1.38244446275149,4.8926561190393096,-3.5096877229909964
1.197107319736495,4.9825665470523637,-3.8660315922390751
1.0989085908229455,4.9483347170378158,-3.6445582744377645
1.1954683753219801,4.913518134568978,-3.5163250930941015
-3.2193229648585615,6.1939041948596945,-2.6813989826478086
-3.1292179680545704,6.3753975234601894,-2.8447402167371281
1.8890244953684379,6.451187631376925,0.2827702332952014
2.058078890372836,6.4385137347854444,0.18416294480410431
2.1562198617872985,6.3428809284799357,0.15370450284200271
2.003584626448438,6.0682819624483626,0.095696388501546409
1.8892657075523802,6.0224682767697786,0.18894427405652231
3.0164800965489595,6.1829364508428499,-3.0688289751886533
2.957038024023642,6.2551454255167114,-3.2066997190352287
3.1257665782749124,6.0124605600279626,-3.0604003114598055
3.1420777877042565,5.9066607092041528,-3.202805688028949
-2.7604000691905295,6.4597401001341401,-1.2108043266883113
-2.740686757243743,6.5714968600965031,-1.3956624585692818
0.46916916997114788,5.5380086527869263,-5.2606663818860291
0.27475185398898883,5.645737538233683,-5.2733290942046267
0.095941842987230283,5.5257903477281367,-5.2639585328582461
0.4956491622336161,5.3685864510388726,-5.2735155678926784
0.10616004477582142,5.2944409495843274,-5.3021184006462585
2.5598754208522698,5.983804270141583,-0.45630034354584997
2.4748601853192413,5.829011427265387,-0.46182914774811068
2.7448672554770766,5.8874621426357923,-0.75806559672873552
2.6835269830808759,5.7413400469095519,-0.76135933696191693
2.6992827442805716,6.0401832722292319,-0.60266044046938017
2.5213808525555597,5.6750104765030747,-0.61191553920430286
1.9678599005358204,7.0924547064363956,-3.6180287103225757
1.9389877169776255,7.1126293130394398,-3.4805166718781653
1.7874314143029821,7.1391561601812379,-3.8304344394048409
1.5306658696680784,7.0247117353690554,-3.6408112789561158
1.7394952251275353,6.9733534408709454,-3.4268549425650003
1.5312025834821483,7.0186697457297544,-3.6230465324638104
0.94723360215164143,5.2620170558958934,-5.069335935103922
0.69110612713752373,5.2417444673237377,-5.139317367112306
0.95141976306458442,5.3802293633669178,-5.1455741122785899
0.88334341152842399,5.4381185885835484,-5.2522287541101909
0.68358129826913505,5.3069044591410064,-5.1852019992712046
-0.40897822291698499,5.0737196458875946,-4.2191410757207493
-0.38152956052960468,4.9962287341011979,-4.6617939735747429
-2.1365783435628383,5.390819747549604,-0.276648912239845
-2.2260105201534559,5.3663563390382834,-0.45977439886839794
-2.4163408681164213,5.3786423258821339,-0.50652654946544107
-2.4896978735594013,5.6164910560086287,-0.30447296311983141
1.2717672354864569,5.2460207612339964,-1.2621906575099837
1.8571355984900637,5.3177839007346535,-4.3670393617486187
1.8731518411630266,5.3706330908540112,-4.6638269898019251
1.944324712269101,4.8993206604979873,-0.84493240904660005
1.8885992835882455,4.8613319266612951,-0.64636923795032897
-1.3727904164955713,6.5613618893411259,-2.3216105690608635
-1.3030355555914601,6.4991609517000111,-1.8859742828141182
-1.46578320010798,6.6344598666558268,-2.2715212679327985
-1.5303447426411974,6.6771894568906989,-2.0588048247450623
-1.4129671957097443,6.6702877551306559,-1.9174792549297848
-2.1567532762551185,6.9436155911748623,-0.78164115082741115
-2.1507075713082933,6.8281337504534543,-0.59819987235862981
-2.3036037062211694,6.8792241942989776,-0.92555722369983273
-2.567049981713919,6.7969891092325732,-2.3499586183549948
-2.4978019833719047,6.8017034715416118,-2.7140429444895546
-2.6582193051160083,6.7546187294891533,-2.5289101632999285
0.59741106838687119,5.072138971013282,0.56418378676307024
0.77457469416152258,5.0243583321938337,0.3803652037080073
0.71199069679126004,5.0477387193922389,0.2186325555354654
0.24888696238666402,6.9054280482895862,0.38463904883187178
0.42829205021026512,6.916575416122539,0.2519798669644604
0.3747502480346388,6.8996199297260992,0.059514445805687224
2.6812288426928501,5.2650448745726761,-1.5000639838744776
2.7411115173183584,5.3437747869067298,-1.6415383917869228
2.4987485510581862,5.0151828011953867,-1.7034784207997766
2.5539758348946204,5.1012714955482554,-1.8549545479090392
2.5543684746315547,5.1259369934493009,-1.4955010607992831
2.7028119244213782,5.2380453689991349,-1.8669091047964235
-0.90530782926932296,5.1114104146980877,0.036688213102994631
-0.78231216128352321,5.1259324778068835,0.15531367569510909
-0.13214831118957834,6.9006748451541498,-4.4276369963441065
-0.27463341137735298,6.9725988831329619,-4.6888964468575844
-0.26282702783413647,6.9168120206555175,-4.2630772331943518
-0.47413256867425996,6.9326119914434354,-4.2870384532439134
-0.55182982491103338,6.8952681309770494,-4.4494959863147354
-0.41309013527131361,6.9049120727601663,-4.6707877329204761
0.40332183898276536,6.8089605887846503,0.74049620191591969
0.56255022458049364,6.6879579943591443,0.77702769506143732
0.16762954116808157,6.560457677624111,0.78835340488132843
0.20375891269322996,6.7462585871432807,0.78170240634255428
1.3403866182458117,5.9138779659812375,-5.012372198366644
1.1174015691125334,6.0275319234700229,-5.0449713334866786
1.3728262401691618,5.829264009898802,-5.0453158371063473
1.2234082675879916,5.6441165219195595,-5.1006659289428482
2.4780547803276551,5.0072562315813451,-2.0839350289547807
2.3705638014284038,4.9030217811275421,-1.6926990202647241
2.3748819538782948,4.8539640590131006,-2.0859990917759315
2.2604657068594336,4.8391503663900757,-1.8566854132585942
-3.2417781356788167,6.2137815090827582,-2.0273689858791397
-3.227365957144356,6.2075188992751444,-2.0171585987071841
-3.1963199869098369,6.0397959244703463,-1.7650732123808801
-3.2700711242840232,6.2410234053663753,-2.018010865550369
-3.2051448723477449,5.98258472586949,-1.7749515972429584
-3.2037600211903143,5.942024032920485,-2.0108078443487076
-3.2165056030057522,6.0569320751212121,-2.0807453618208704
2.3564852688193403,5.0309457977316656,-2.7534179171795512
2.2300489260912428,4.9259260031338528,-2.823582945583476
-0.64562180453508777,6.5977764548575673,-1.2138998565877903
-0.67235633981498333,6.5003154538416545,-1.3549142392059075
-0.43890693008037684,6.6306433122378881,-1.1349407193330534
-0.34543867361337172,6.5356950558745286,-1.1728666238028971
-0.39292766222585934,6.4181200373324545,-1.2208020428006616
-0.57450616825676903,6.3887742132987082,-1.3462405508382278
2.7549844138771236,5.51275701167304,-3.4636614133529999
2.5099667495127647,5.2980595258260186,-3.440320524379143
2.6201224301888821,5.4139787697465014,-3.5334697938880004
-0.60905152766795334,5.9930778137203378,-5.2008083286222737
-1.8697412055747036,6.2220727782998075,0.080395432427872476
-1.8519169654550605,6.0659481001565885,0.20415959017946833
-1.9238155641067221,5.9526612779894883,0.19609533014235508
-2.142542319689074,5.9303206012827854,0.067519900780486086
-2.104323419093848,6.2838231297027569,-0.0011385215373973427
-2.1829106351244802,6.040465887099316,-0.022265905225316178
-1.393850067625606,7.123890532778363,-0.14915217121229032
-1.4870834610647246,7.1243954609502467,-0.33759342544726689
-1.4856158557438759,7.0581617081452404,-0.073934582396646062
-1.6906662065720421,7.0346178186778427,-0.16626453057954618
-1.5813550411180228,7.1140123263322641,-0.35878491039919702
-1.6758269172810316,7.0699093921591922,-0.29459008468525971
2.4367014352668845,4.9806262062939934,-2.4984610453031952
-2.1030516848546519,6.3391354154893396,-0.07337412059551876
-2.3021602133810202,6.3501069465364077,-0.28880134361209686
-0.33244792925371131,5.072642761800692,-4.8006003334454652
-0.4362062893289102,5.0711490406629931,-5.0118253545667999
-1.9387648792284859,7.0948618372600869,-0.76233388661262436
-1.8918789296459111,7.0961111216088497,-0.4834755555996374
-1.9050414080437865,7.1000215873316188,-0.46578535259552795
-2.0476578567044692,7.0751569988701304,-0.81464814747525327
-1.9687243855151109,6.9015074921289612,-0.4570568273975818
-1.6191837502028996,6.8165400287491389,-2.4262017874400605
-1.7313872043829717,6.9274323992604039,-2.2992144474662766
-1.7094916965482709,6.8752450274838868,-2.0692391951191369
0.63094552392990733,5.0997187098168455,-0.52160755815572213
0.56525507095592553,5.1226425636450807,-0.6678772441036106
0.32342781759634576,5.0852599804629142,-0.69942748412582822
0.52776199283173642,5.1117522471448629,-0.3644078877238397
1.2144429966284467,6.2803941197082498,-2.1787275191202249
1.0405464416835684,6.1497448415300671,-2.2708269087072108
2.0811874439424369,7.1159256163711309,-1.793989559099294
1.1293140509386306,5.7072202812300352,-2.1934873393180472
1.0394078120251793,5.6296139920965151,-1.8010397317629199
-1.2312047988989119,6.7510508614479283,0.33221962558535834
-0.91024840838716425,6.7204841684693006,0.51040242612504449
-1.1080497937108924,6.6279887611861152,0.4587049186289186
-0.56367041314879129,6.8706171628442423,-0.72641576916842843
-0.58237257757353234,6.8082446303033608,-0.83500335319507879
-0.39417913806323251,6.7117395754116931,-1.0017053046127113
0.11513772447825284,5.5984542100841788,-3.4844937660417998
0.22942565565186515,5.4785451134145733,-3.4926251255427476
-0.10642751250798475,5.5720975232090248,-3.4765363277590486
-0.18179557080476449,5.3243841790254702,-3.4421572389580919
-0.73231718098124499,6.8872782446696741,-3.4587528114964181
0.098693512642187883,5.9278713051486553,-5.2917864020936012
0.26663261497212676,5.8271961958682468,-5.2916397320396396
-0.69162764530308829,6.0935417813141823,0.74904856294628075
-0.54015150333912521,5.9661048956748823,0.79364700078299699
-0.88571854073338396,6.0108443723571403,0.71417707346709958
2.5534253921952419,5.4647269968017946,-3.7621574783743434
2.5499104383191922,5.5960117833747622,-4.143561461502701
2.7344720636209234,5.555233563348775,-3.9109650422731117
2.7352508908776003,5.5540245278359173,-3.9106371566293876
2.7370556549612695,5.5521874869678216,-3.9115580255439659
2.401801718703219,5.3587919889126843,-3.8337740489616676
0.51968374045145671,5.4857095906348157,-1.2165902411322316
0.49862100468867143,5.3893399710228698,-1.1499271887744864
-1.2890261034657915,5.4737224813613832,-4.9208125292949809
0.45235313458124754,5.7130587425577932,-1.11900784249815
1.2179073598977974,6.313935831958891,-1.9627628303166773
1.1349933373228593,6.1551417460218252,-1.8389358745827189
-1.6879250738864178,7.1270612856706448,-0.66221875893972337
-1.7104945810164744,7.1118600905000751,-0.57053575978139759
-1.7842334307240331,7.1831464616603737,-0.83016176206170111
2.5565891515213175,5.6821382499100181,-4.1718747777072496
2.4713395887079863,5.7541837738104942,-4.312450785161853
2.3755158225184947,5.6234725193158743,-4.4102278655131686
0.98447182587674742,5.9483637492459316,-2.5019095232208892
1.1136440679579263,5.7772365507263732,-2.5868792292110001
1.2369194460371595,5.6818504590403407,-2.4148122774430685
1.1190536088619309,5.0092989508002184,-3.9908318293414773
0.92045567863416533,5.0343113716109205,-4.017649607472948
0.76176211889241885,4.9260219315064671,-3.7730347663451758
0.88690459540745237,4.9652162615368205,-3.637835283800595
-1.2475082808554869,5.2121721225947768,-3.251390276935612
-1.380411749206566,5.1304811761467377,-3.3765237390077099
-1.5655665669866041,5.0967420708640292,-3.3240421703761887
-1.6349957727546081,5.1225111867383371,-3.1393674180610556
-0.4259228197871423,5.0913113570936845,-3.6989623811007153
-0.35553012151794117,5.0827088150263569,-3.89484902085275
-0.46372378066316944,5.0712610554926503,-4.0420365561315794
-0.69909612030479917,5.0823654090689914,-4.0093878807577532
0.15722675877295439,6.7964519087272564,-3.5517840961829652
0.10240501712002871,6.7235537099990648,-3.4954242422087378
-0.2430720372905705,6.8882033439122337,0.63048233341441573
-0.16233714838433852,6.8035148970979442,0.72491367482328051
-0.53075744944213632,6.8776950078773424,0.64218419338155974
-0.19490094597004365,6.6272253516366018,0.74281919118452222
-0.41816336328269932,6.5369668026509657,0.71384939033919781
-0.56261992827507312,6.6789605711622206,0.64609601628721847
2.1131436252318236,4.846308562235909,-2.741804997948412
1.928102077004723,4.7991380621570086,-2.8190461961682112
0.053003165268425224,6.9341897527462439,-4.4274194017662225
0.3517937001148515,6.944817480266444,-4.2712253325975524
0.16068600367949529,6.9370337452268176,-4.2782446744683593
0.92835882481086529,5.909589559513825,-2.9295997154966811
0.78827761117673245,5.9584731845551282,-3.1324959274080428
-0.58709882298439819,6.8703441939174752,-4.8285214253740776
-0.80054703925084059,6.8779271534465192,-4.7007114447263501
-0.94592213476737008,6.8806490552178543,-4.7655853449987431
-0.90806240958800266,6.7834984420329283,-5.0446099263156698
-0.9921437741686181,6.8387708045521061,-4.9621725306956241
2.151514346625039,6.4754007468969066,-4.181518446036705
2.6392420977092219,6.7622535428219592,-2.8482127673136133
2.6744783516389492,6.6609951805042655,-3.0256875050449432
-3.2632441100734031,6.2290681012732456,-2.0176085985307033
-3.1464757708090656,6.1101330288984093,-1.6376138372508562
-3.2541670221484345,5.9948389776570652,-2.4298685038185375
-3.2279412343981031,6.067805023272645,-2.3615806502433605
-0.94730458940117401,5.3337307600849462,0.68766859951436476
-1.2478192858482298,5.4815206965804792,0.6691683089771403
0.096410889565345465,6.1337921107446265,-5.2887532721675559
-1.1362644097994008,6.8785542333008607,-4.6202858163754366
-1.2708993132811237,6.8308661085514499,-4.6751151769215786
-1.4919089945106923,6.8155793671157436,-4.509588708133502
-2.5133224384006749,6.0215765019960985,-4.0382011798249815
-2.6545149197731743,6.1106296759928886,-3.899023551980128
-2.7359408954656823,5.9841006400576999,-3.751310170308721
-2.4428752411738492,5.8766913904265472,-3.9905042581691346
1.7806245785311796,6.9300146352499672,-2.1999218098054345
1.6364937490866458,6.8477515403072893,-1.9228647440484701
1.6922244864709262,6.8710741183342448,-2.1546284256121471
-3.1809315370972251,5.8511174552870235,-1.6454616309362911
-2.049069272811145,5.4638802105651409,0.12221412850915235
-0.98956737781709636,6.3243030348180262,0.5917494228818595
-1.1507168313145455,6.4557851630450189,0.50866513871306152
-1.0282342377210139,6.1333213253039514,0.6298268815791388
-1.2119245810761767,6.0490148004244046,0.57266570823838425
-2.2595237405945428,5.2163861436928087,-0.8797123769330768
-2.3607623982409756,5.3360628748876229,-0.85443386898654339
-2.5311962819469116,5.3978922540696317,-0.98898244882089958
-2.5598928689574385,5.3050308000096402,-1.1610576519363192
0.33081732846106188,5.0679938762305374,-4.4390302763142921
0.50761279390542602,5.0458375811684872,-4.0623729488259199
-0.13703694117199697,5.1960799585713584,-0.91323750356094746
-0.32342217269687079,5.0805572374781054,-0.81018296003981283
-0.56742242091989403,5.3357246194568706,-0.95016789083183362
-0.50883508302794,5.0903721950974683,-0.91512438581807543
1.1236026021615189,7.0589294546665737,-0.89695017036187175
-2.0520609667999352,7.13662895179624,-1.0453131954674726
-2.1638024238106506,7.1178914789572012,-1.1339083521591691
-2.2914223171419685,6.9862894286638184,-1.1145639306850048
-1.5282758195431154,6.7144460614457353,-1.7133904106458198
-1.6963488671503586,6.894806494074361,-1.7275459535473554
-1.7560641280759024,6.9372590186241503,-1.9628063384337233
0.97817656605298164,5.1181911642353075,-0.62593828035758015
1.2335685528206655,5.142776478121311,-0.94897394175155103
1.5748079396587205,5.7147460509978183,-4.9449517976139541
0.64562488544718033,6.5785476476227442,-3.2352287104446025
0.9887305203076926,6.9166616006116026,-3.9847547728367188
0.78929882393514905,6.9039875426808752,-3.9705269575115443
1.1261863467524313,6.898559275145228,-3.7989651117418015
1.1005770264059191,6.840611793840643,-3.7024161415312844
-0.41442313559398147,6.1380781157651478,-3.3911861349350438
-0.19481378114316777,6.069051638693951,-3.4509322014850676
-0.041606669147043002,6.34290799854009,-3.4913972449585704
0.26177645986126968,5.7328130043818115,-1.0184374199200157
0.12725802577035489,5.5627185049822589,-0.97634303520089294
-1.3754386243958983,6.9771038168078032,-0.82029120629732055
-0.9735302694187945,6.5651348373211507,-3.1938023119059245
-1.1267965138460099,6.6864595097579267,-3.1166511597321582
-1.2335177207764068,6.6470146736355886,-2.9710677045071661
-1.2005027765922376,6.4261285062260711,-2.8506602325034143
-1.5150447581449875,4.8663334086045555,-1.2711679152901871
-1.5224645802522478,4.8745216324073706,-1.2928570126385022
-1.8613748701716888,4.8299610726848261,-1.380140044944113
-1.7917443345313311,4.8426328454292884,-1.44646918052285
-0.31376677048668844,6.1934938367384804,-1.1176889086063533
-0.64682881447168439,6.2683840047322104,-1.3726278174243036
2.2726399623608642,4.8587870869010059,-2.4046620556102485
2.2661117521232113,4.8203925084142343,-2.2088215328232406
2.10866023126608,4.8248414719972637,-2.1672252766466169
2.111131096019244,4.8171396344955504,-2.5173366297242223
-0.75462668611860029,6.9052847338814773,-4.4891746456835024
-0.18122532409952485,5.910710472156536,0.8278918200406935
-0.21726126403674467,5.718493139827844,0.86306884408987616
-1.9888135105855416,4.9356749354364133,-3.9550081232610008
-2.055753232990027,4.9691715942261343,-3.9829791872787266
-2.0252819623410634,5.0576118981273721,-4.1220277382133057
-1.7364267079837912,5.1454317280743345,-2.7415466085732594
-1.7827525351051048,5.1238829550269784,-2.5160651670035468
-1.9512250700116824,4.9912929541130646,-2.4674126589271244
-1.8719990955442998,5.0074280859813491,-2.878658182932329
-2.223109766875885,7.116979468680368,-1.8086545244963288
-2.2477578738813517,4.8870216096322334,-3.3494801179958449
-2.294040173094464,4.8972529357423014,-3.3587521096477886
-2.3232203510154794,4.9918014306925853,-3.5286940849489685
-2.0657253951148991,4.8504032961788139,-3.641066316977454
-2.1905394284866877,4.9481195478454056,-3.677308539664609
-2.0587885933947625,4.8831018778634006,-3.5587868098377866
-1.2490576971589187,5.8593436015141496,0.6040696133357718
0.4446551974019593,5.8427698134648658,-3.3763796177669549
0.19618525977074916,5.855355589788803,-3.4401861707635555
0.45592596051165935,5.5043671074345202,-3.4613913185968999
0.51352454502591827,5.7432857134919528,-3.3587100354173307
3.2574053094062174,5.9465502430501802,-2.5531793704775532
-3.1295440439954518,6.3558666784467857,-2.9370032414981311
0.99344501979848931,5.2125359827081059,-5.0331923200631312
-0.38355447801551878,5.1218382169974852,-5.0843733072809023
-0.1294063262350251,5.1402856704244755,-5.1190920476514883
-0.26406323032912316,5.2909977689862808,-5.2490958517935118
-0.43151526751640124,5.2137563622781435,-5.2064446902557098
-0.14199357061667467,5.2332616735003548,-5.2003830055345963
-0.85086920292286794,6.605685848002004,-3.2953542485225484
-0.69608618749288487,6.4813609879804082,-3.3717469811831244
-0.72963022010905509,6.2164680040202978,-3.2723586082252951
2.6988316698672166,5.6037917654713567,-0.93717744754218024
2.5982622913899123,5.4511793258352848,-0.94665774702662153
2.6119427246272275,5.3130629585897626,-1.1333427439916508
2.6938023129961675,5.3954346691109549,-1.2913691229302289
1.332713720879894,6.7202769858659686,-4.7725671980077218
1.2337633143760762,6.5842590278475388,-4.8641092267646426
1.1090080893378069,6.5994620352431177,-4.9710757359972551
1.028445527219503,6.6718060594365571,-4.9757815208947003
0.99987859298065296,6.8461397835933022,-4.8914094910893837
2.4524385176607013,5.5156541420393861,-0.61296071896848425
2.2962257126941847,5.4580051150064079,-0.48827893091142766
2.3942417314165381,5.2084324221409428,-0.79647180502515924
2.4746989586894115,5.382182557794466,-0.79410783513152605
-1.696851637387603,5.203569587187121,-2.4125779884590637
-1.9960331331713133,4.9743391469070986,-2.2432269907812561
-1.9425988537486059,7.1411697936168848,-1.2524069864414089
-1.7508072759790536,6.9531784451190273,-1.6077946123351072
-2.0046768170548126,7.1491741069114338,-1.9230785850189922
-1.9415126868341872,7.1361296770333409,-1.9882771243159916
3.1412586469684172,6.2466216733995941,-1.4852384721722569
-1.3052075509244656,5.0916079808221628,-3.5882241692633992
-1.3952025353913611,5.0763226786015112,-3.7071413188254803
-1.6416797524583784,4.9759628131466735,-3.6924148231387353
-1.7224069887892832,5.0140403646303797,-3.4793787522178423
2.0278053673600942,5.3253379212870078,-0.19953006631700115
1.9231103320112857,5.2796765587214978,-0.099109494816246729
2.0379485674749551,7.1186350025335594,-2.41675274750206
1.8495990500827661,6.9667136466085466,-2.4315882953029626
0.24040113647333525,6.8804785110508808,-0.76108999752071693
-2.1904706094977446,5.0291097935162963,-3.8276938636790354
1.1240314439352637,4.9804187785533998,0.21070368840275508
1.0350050107148219,5.0464286355268664,0.073516911834936888
0.83318152566585058,5.0621670537517556,0.050819311265645338
-2.6218087151606437,5.7098496866736985,-0.36011357546454981
-2.7299699547763767,5.6702416659963566,-0.58305040998836999
-2.8050207324647389,5.8508206116182846,-0.59079902330050083
-2.7980777969121635,5.7498023573049499,-0.61933390999959848
-1.3050328532772122,7.0236314611771569,-0.52273107920914241
-0.83944381019958281,6.4519753472358898,-1.4343154406354657
-1.0501019444779867,6.5972052349588299,-1.3770869136111983
-1.2015767199322729,6.6004814859653074,-1.5286398368238598
-1.1994754019086453,6.4599658612563395,-1.6690329097618033
-0.8591921415401147,6.3491604762904013,-1.6445405286104859
-0.94696145610354976,6.3360678075122099,-1.7088083045483
2.1308594102210079,5.9396901325914371,-0.043277756951265657
1.8074967412996688,5.7485867884338413,0.14591641411817097
1.9237539044820839,5.6436566185226855,0.065783533989124648
2.0149147079906617,5.6893013232740657,-0.041956291235900008
1.8252467058014639,5.1941326080403085,-4.0504692506896331
1.7378044413007552,5.1063879497631959,-3.9637318299203996
1.7802597365123161,5.2373875614154421,-4.3098482479730125
1.5285716758520995,5.0814056843766791,-3.9963458864033652
-1.4329664047556909,6.6748967700797968,0.26873285952132775
-1.4332703185836499,6.987251424981749,0.074664532467932671
-1.5317099494579207,6.7860351689196472,0.1360197846997101
0.5904286729055811,6.8536964151744071,0.56902597458510895
0.74241305453599593,6.8150593527343739,0.65021181793484462
0.41614113049294199,6.8805513442429156,0.65977223564146525
0.74033893571437126,6.7540649340945942,0.72420466578428755
-1.4326526150312509,5.0265646809673887,-4.5987465240625598
-1.474534923105995,4.9631945801085458,-4.444164786231128
2.2675006412598839,6.7432299651310732,-0.8609860246209049
1.222944975499076,6.6381515702806855,-3.0179091610038991
1.0259569240646993,6.6842448267233401,-3.2000659870807611
0.82262439459696668,6.5600394379396505,-3.108247255079112
1.1752753094901267,6.544800789248562,-2.865568832399505
0.94920193362208083,6.4612710932420967,-2.8360129417012239
0.83040008542898314,6.4749627286222671,-2.9950401872130699
-2.6554071327815274,5.5273587741836669,-0.91153298249391357
-2.8047748368524821,5.5938226592985973,-0.99687517662634406
-2.8112230340108542,5.55850215139961,-1.208909422842146
-2.6992872946037325,5.4129109294355819,-1.2905290413826556
0.85944653817195593,7.0237594631632083,-0.91821562791557443
-2.4439697570738179,6.1451479467928118,-4.1951449647129495
-2.5248517044085381,6.3750693436574322,-4.1457192706408739
-2.4540411445021069,6.4968149157632364,-4.2328430328354258
-2.2825616701070244,6.4233450173903739,-4.4075808114176187
-2.2484813356380657,6.2860440346371265,-4.4091767392192658
-2.3435158039602446,6.1338708241210611,-4.2677321799723078
1.3358914672049644,5.1485865990252826,-1.1374140109399851
1.5678295925263959,7.077241907933062,-1.5338479622214063
-0.54774931227317214,6.9171518301742072,-0.28003461077345254
0.086369356702710925,6.913991493972782,0.64143989541090207
0.06963200926396873,6.8624305218129873,0.70523470673256528
2.2947030405603912,5.2690186333908535,-3.7306571618274758
2.1156775490824797,5.1745298152734458,-3.7936949689762582
2.0498975416934559,5.2525893314163064,-4.0020271989750853
1.7883247417711485,7.1422560913510909,-3.8437017136133753
1.6466394079141726,7.1206646830541782,-4.0773248727722677
1.6515675494290643,7.1139888619335947,-4.0920737146589143
1.9389280054925822,7.0390635378671096,-3.9147246995199203
0.46859248500352452,6.9482963325972422,-4.1139466917176239
0.36287878766543802,6.8710465669450578,-3.904117209773514
0.13029389513517764,6.949170214284405,-3.8806940670721661
0.026134877204945853,6.9543339084437141,-4.0323977454063664
2.8737518798029655,5.9759658269568101,-0.9324147979607843
-1.6159845416209329,4.9807598338740053,-4.054054610779195
-1.7097716502225742,4.9812755391001646,-3.7890636116396146
-2.9432378577385463,6.3011516775290914,-3.4711962525844076
-2.8844058998486659,6.2341743833834284,-3.6109777182742229
-2.8323643981376736,6.0485201752303324,-3.6262458383108789
2.4210030155801712,6.2826807526129631,-3.9614423331970268
2.5810713321956991,6.261399435034523,-3.8343317999294224
2.6709318320251501,6.1103448501660447,-3.8433716136123754
2.6338237949507866,5.9723964126537004,-4.009784480869409
1.3974073670418208,6.9875437804688287,-3.9864227054445167
1.3686127180623349,6.9652649576038472,-3.8731202272177758
3.2295758960826477,6.1472416858272938,-2.0088851353521977
-1.7349255038555391,6.7521522570252133,-4.6695723102968127
-1.9253852225032853,6.7769906086057734,-4.5106012398147266
-1.9908247984363063,6.6808558851713498,-4.5117544615311393
2.7216774307026199,5.7746966340721375,-3.9514060744989128
2.7372217039883591,5.551101766395262,-3.9119334506256718
-1.8134501096599536,4.8766871765471329,-1.5303676616160502
1.2836959440055746,6.8044340952093361,-1.3554005087017604
1.1266858003184759,6.6698033052532981,-1.2552256099706922
-1.3657409141010584,6.5188258650579751,-2.5824268378456146
-1.4511704456645456,6.7270993629089046,-2.7014520857797488
-1.5648618240707988,6.8506221465352786,-2.5866344840392941
-1.5198111018794429,6.6603387160918253,-4.9201147057265286
1.8162592993603603,5.3939996413986266,0.029449415395851546
1.7007701277238148,5.3334458852107387,0.16522247733617174
1.5174528501249909,7.0440543609758697,-4.3572146613354805
1.5790336868822772,7.0137357264876776,-4.411080048483015
1.5374348787980909,6.9448900152583652,-4.5376772962877459
2.2300745630935963,5.6848412574924962,-4.56641015881124
1.8815648556144615,5.8016956546494054,-4.7664316436120782
-2.4035253749698247,4.957654021339609,-3.1960061490026432
-2.4310421830888869,5.1232055586396061,-3.5441650572711834
-1.4862721794885398,7.0539195887099151,-3.1450502543386372
-1.3092860365146368,7.0571049078115449,-3.3611345160962411
-1.4929299942262262,7.0220439717925238,-3.5387381986519508
1.5697210524479797,6.5299608172090498,0.52318606279114288
1.3192912322231221,6.6153728977541988,0.56011291079429892
1.5929499410396613,6.5740580132872068,0.45262960621803516
1.8114358143391054,6.5621516962882485,0.29808511294958639
1.6183709046827006,5.2496440770577459,-2.3973606911001251
1.7893584807347456,5.0633667334185866,-2.0744326981827164
-2.1052995491544388,4.8355014096211217,-2.1832301626864168
0.1322945856784169,5.9453207818676796,-3.4566251721203165
0.47898085773847543,5.563122973193078,0.75209184384481187
0.56926179688269707,5.4176822500131561,0.70176160929736375
0.4950850077092111,5.2635380979666406,0.67572140173483586
1.0351391048082679,6.6993039215823087,-3.2802827504449659
1.2622928150510926,6.8718345890407848,-3.4247937107325028
0.93030115990213647,5.6078451086074983,0.67986282164022782
0.98151650329157203,5.6172626714236964,0.62885033851943106
0.75151988904945877,5.4165045464783041,0.61364132044106567
0.81882657116798629,5.2324210338843251,0.56510628058241752
-0.23563718456264152,5.7240648570226531,-3.397635458836699
-0.37091476854277977,5.2938913943126336,-3.3515444526299363
-1.2272577362556989,5.1207381803403385,-0.22452073567155334
-0.53963410991609839,6.8952096856846365,0.58814845915607217
3.1782078787517301,6.046152234509206,-2.7505820022916199
3.2582489992002337,5.9936976749534594,-2.5646194226134083
3.184676948208641,5.9622938317340299,-2.8776429384826225
0.80546684086298381,6.9044914068772414,-4.9102279376804905
0.54985013325430665,5.0157493527323949,-3.6896460437290468
0.63370369655888803,4.9371503994952546,-3.7774320102729231
0.61551331047905999,5.122101704867557,0.59233151076590973
-0.32990719276377495,5.334289811021411,0.82293034825513844
-0.35203562230671737,5.2485459693188128,0.74414542248941828
-0.63156059776392126,5.2790253863958458,0.7271529493997626
-0.95192097218273142,5.3730509956828776,-3.0131127573860224
-2.1735536353064009,6.60596201446808,-4.3900154101927225
-2.1946179624634565,6.5204841180076052,-4.434977810741592
1.2806053551586454,6.8838088964192767,-3.4178696406187585
2.1139263812144695,5.5590242544438819,-0.20790855427893717
0.047388686513418668,5.0990527931608192,-4.7575715439256179
-0.071288295556612813,5.1035012257402812,-4.8699639638621575
-0.05707226897734885,5.0965139068163205,-5.0754922029040435
3.2715273125000826,6.097341887694717,-2.2944442088857495
3.228683000405256,6.1062766722448449,-2.4401914454713314
0.32572989974779487,6.481042582393985,-0.98381618509192748
0.51455296963214248,6.4533428128009387,-1.0136024521757658
-2.921263465101577,6.3389713523198772,-1.1813830119348081
-2.9861503897891599,6.2562756034563485,-1.3324860476589058
-0.6013247458722043,6.970511389668288,-4.1069156138276419
1.1695733312671535,4.9812604107674412,-0.20854453876087189
1.1575546486776429,4.9552704681576785,-0.23520661856570332
-1.3233464796769943,6.7884503651444437,-4.8573504259532401
-1.5053569970231957,6.7063012644213327,-4.8766603780654787
-1.6779792699678715,6.7692013386001255,-4.6756671407308028
-0.44067795461522435,5.234250449978072,-3.4272803700595063
-0.3625193146754484,5.1357339338643833,-3.6066504125192358
1.6099319463849115,6.7666552273737688,-4.5919929372442692
1.5097836609064421,6.6632381952664312,-4.6687168730238566
1.5766519519139277,6.4321639670763053,-4.7133844758852046
1.6951637912549118,6.3790796832136838,-4.6899740606469695
-1.9923930085967323,7.1398321811822596,-1.0611590082236138
-1.794322155286022,7.1553497136035862,-0.8767666539697494
-1.8790774971016202,5.1499626729886829,-0.50334738640883747
-2.0577041071037359,5.2256003000011537,-0.62696102795943587
-1.9960333700783053,5.3386565208210897,-0.22679288510910153
-1.8475360450953764,5.173797765520936,-0.40724780534746524
2.3948825523783954,5.0971729499026281,-0.99023677907183882
2.5041933913451606,5.1637745986042862,-1.1383947205823108
2.4732277892073258,5.051901541471433,-1.3380567482322363
2.3505584909984751,4.9285342881126848,-1.3404773758593531
2.0343329778673143,7.1057324123315047,-3.3935141364158596
2.1416281248187032,7.0816269093052151,-3.4178497891574713
2.101391295026124,7.0742179165798662,-3.6653705944932309
-0.48456679535950192,6.0998554110103171,-3.3283094631736412
-1.4597188376679593,5.1295076417839578,-1.4515192827469094
-0.91611797645468063,6.7075397782892283,-5.106527244043976
-1.2151546755393803,6.7794380644256114,-4.9893108731780593
3.2195961395240515,6.1861500693150351,-2.1535896558054257
-1.2897224124575213,5.5854768137265527,-2.3743599902720929
-1.3681004978085973,5.4622364951737419,-2.215018210088382
2.6496711905748813,6.7634631294002929,-2.4727471916689523
2.7725110040661063,6.6443546320293443,-2.3224067206053527
2.823363871269069,6.6936145018064108,-2.1723740213227991
-0.814387469995969,5.039418966036286,-4.1706615096899844
-2.9916033530981223,6.0380487587734857,-1.0090208240289378
-2.9452173670434854,5.9241023157310071,-0.87814804917462586
-2.9698321909152612,5.7487837028624895,-0.90708452643533999
1.0876329041253769,5.3051093765378203,-3.2480607052877404
1.21159879266061,5.1751884326132211,-3.2459824366454169
1.1971996525125528,4.9783155183303727,-3.3441871824360558
0.85430443228522257,5.0072944028883297,-3.4615282980057582
1.1554914072822284,4.9548780199539708,-3.4079303110663375
2.300378507123753,6.0887392581805004,-0.171421505435564
2.499058993787977,6.1447102261066044,-0.3440878271113203
2.2688293922992182,5.9715711135084568,-0.11810831016674786
2.3023899477678547,5.7774836906279852,-0.33815495706029869
-2.1364115192566842,7.1485899754113333,-1.9431208966517863
-0.33446509742701469,6.0512953515363321,0.81627557548490715
-0.12770625874265215,6.5755230179694237,-1.0609201572796894
-1.0414435325378038,5.0262702826804704,-4.5184112962469412
-1.1662910641152653,4.9622074404329908,-4.7030856311037335
-2.7061247000180009,6.2861940239576315,-3.9174363009305755
-2.6409013666662275,6.3944967130037673,-4.0197924876762698
1.401080903507381,6.3429572112185593,-4.8947352414209142
1.0353071844704336,6.3150015198675824,-5.0591481360520545
1.4019923243585328,6.3059386365270598,-4.9336976461911917
1.1124721117627132,6.2254781873007987,-5.0228369811603777
-1.2567468924864695,4.8803549250649825,-1.10829815024585
-1.3683501102916384,4.8426519377267843,-0.90503514256443507
-2.7839267637217988,6.3534760861324289,-3.7316431978624673
1.701521995656406,5.8619840184668286,-4.837657663230897
1.6403141408547937,6.0439433239982536,-4.8220991818090795
1.4597080912388136,6.0903393355262789,-4.8748366556987213
-1.7366867611879924,6.4290920785498873,0.12712107782601889
0.61037705132893672,5.0854015355187752,-0.17369998207165924
-1.715165564819856,5.032352506591419,-0.71144199513988393
-2.1105638132163249,5.1642860565914228,-0.77542147510188819
2.126250819380946,7.0619265745529818,-3.7082713705530104
2.2059866199535811,6.881387537637508,-3.7156921526764419
2.195862825763284,6.7559672891830278,-3.8885258903498685
0.80801052522490313,5.6196733457541077,-3.2289798945817219
-2.4262171239980876,5.4277082159657262,-0.59452676887640554
-2.612671587705568,5.5875661026537502,-0.69001351376828812
-0.18563316617308012,6.9133478523692915,-4.7956923996329115
-0.23376280729937302,6.8998019815941838,-5.0482519101739074
-0.054341367834415934,6.8591224526150869,-5.1262521112652699
-0.90436287441186802,6.2852479047632084,-5.1693034217906133
2.0072258391498274,5.1165671033226774,-3.6907331020273109
1.7992608223571134,5.0615070415419163,-3.7380266485067213
1.6986877599338563,4.9717657889324771,-3.6315569379371171
2.7054926202986498,5.829196358075075,-4.0268699404626096
-2.217724145442713,4.8113615577198168,-3.0197587999220832
-2.3444164126378486,4.8840647952058305,-3.0241873358813138
-2.1620051300846832,4.884490871415343,-3.1694423017357116
-0.81191639490559286,6.8670298290200664,-3.3663107274713457
-0.97561002384326168,6.9427407766997105,-3.3685027855313479
-1.1145769027408019,6.9382983413117163,-3.2186119427992042
